ply
format ascii 1.0
comment Created by CloudCompare v2.11.1 (Anoia)
comment Created 1/21/25 8:33 PM
obj_info Generated by CloudCompare!
element vertex 1354
property float x
property float y
property float z
property uchar red
property uchar green
property uchar blue
end_header
-20.9266 34.2916 0.774625 179 116 81 
-20.924 34.2885 0.79 179 116 81 
-20.9262 34.3176 0.771 179 116 81 
-20.9234 34.3214 0.79 179 116 81 
-20.9253 34.35 0.770333 179 116 81 
-20.9234 34.3514 0.78325 179 116 81 
-20.925 34.379 0.766667 179 116 81 
-20.9233 34.3789 0.780833 179 116 81 
-20.925 34.395 0.765 179 116 81 
-20.9221 34.4113 0.781125 179 116 81 
-20.9215 34.4417 0.780308 179 116 81 
-20.921 34.4654 0.7806 179 116 81 
-20.9195 34.5004 0.7829 179 116 81 
-20.9189 34.529 0.783857 179 116 81 
-20.9184 34.56 0.78 179 116 81 
-20.9176 34.5903 0.780929 179 116 81 
-20.9176 34.6144 0.775143 179 116 81 
-20.9157 34.6547 0.781333 179 116 81 
-20.9158 34.681 0.776875 179 116 81 
-20.915 34.712 0.774333 179 116 81 
-20.9136 34.7469 0.781111 179 116 81 
-20.9124 34.7696 0.784 179 116 81 
-20.9118 34.8018 0.783125 179 116 81 
-20.9115 34.8327 0.7797 179 116 81 
-20.9101 34.8611 0.782889 179 116 81 
-20.911 34.8913 0.77375 179 116 81 
-20.909 34.9232 0.780667 179 116 81 
-20.9092 34.9442 0.778455 179 116 81 
-20.9085 34.9775 0.777308 179 116 81 
-20.9073 35.0057 0.780571 179 116 81 
-15.3304 35.0201 0.778357 108 135 75 
-15.3031 35.0117 0.778556 108 135 75 
-20.9066 35.0394 0.781 179 116 81 
-15.3763 35.0527 0.782 108 135 75 
-15.3583 35.0346 0.785875 108 135 75 
-20.9055 35.0641 0.784455 179 116 81 
-15.3684 35.0728 0.7792 108 135 75 
-20.905 35.1001 0.783143 179 116 81 
-15.3554 35.1025 0.780625 108 135 75 
-20.9049 35.1266 0.780778 179 116 81 
-15.347 35.1195 0.781 108 135 75 
-15.3362 35.1364 0.7816 108 135 75 
-20.9042 35.1638 0.7808 179 116 81 
-15.3258 35.1652 0.779 108 135 75 
-20.9042 35.1911 0.777667 179 116 81 
-15.3264 35.189 0.7796 108 135 75 
-20.9023 35.227 0.785 179 116 81 
-15.3269 35.2168 0.7763 108 135 75 
-20.9027 35.2485 0.78 179 116 81 
-15.3277 35.253 0.779333 108 135 75 
-20.9023 35.2789 0.777778 179 116 81 
-15.327 35.2842 0.786 108 135 75 
-20.9016 35.3104 0.779556 179 116 81 
-15.3245 35.3155 0.77725 108 135 75 
-20.9013 35.3439 0.7775 179 116 81 
-19.159 35.353 0.779 41 49 101 
-19.1382 35.3511 0.782667 41 49 101 
-19.1111 35.351 0.778692 41 49 101 
-19.079 35.3534 0.7754 41 49 101 
-19.044 35.349 0.765 41 49 101 
-15.5988 35.349 0.777667 41 49 101 
-15.5711 35.3393 0.77775 41 49 101 
-15.55 35.3432 0.778462 41 49 101 
-15.323 35.337 0.775273 108 135 75 
-20.9006 35.3709 0.777 179 116 81 
-19.246 35.379 0.766 41 49 101 
-19.2258 35.3772 0.77575 41 49 101 
-19.1944 35.3668 0.778111 41 49 101 
-19.17 35.3577 0.7745 41 49 101 
-19.144 35.355 0.772 41 49 101 
-19.099 35.367 0.7935 41 49 101 
-19.0842 35.3649 0.786455 41 49 101 
-19.0506 35.3661 0.779105 41 49 101 
-19.0212 35.3724 0.7772 41 49 101 
-18.9843 35.3719 0.7791 41 49 101 
-18.961 35.3753 0.780545 41 49 101 
-15.6458 35.3732 0.78025 41 49 101 
-15.6313 35.3625 0.776368 41 49 101 
-15.5425 35.3686 0.779467 41 49 101 
-15.3205 35.3708 0.776818 108 135 75 
-20.8999 35.3975 0.779 179 116 81 
-19.308 35.4123 0.786 41 49 101 
-19.2908 35.4012 0.774692 41 49 101 
-19.2611 35.3908 0.779273 41 49 101 
-19.2405 35.3887 0.78875 41 49 101 
-19.0206 35.3937 0.792429 41 49 101 
-18.9988 35.39 0.788333 41 49 101 
-18.9485 35.3895 0.785 41 49 101 
-18.9312 35.4045 0.7771 41 49 101 
-15.6422 35.3974 0.7806 41 49 101 
-15.5337 35.3964 0.784111 41 49 101 
-15.3226 35.4016 0.784222 108 135 75 
-20.9 35.4354 0.775 179 116 81 
-19.3416 35.4394 0.7868 41 49 101 
-19.321 35.4236 0.778625 41 49 101 
-18.9235 35.4241 0.77925 41 49 101 
-18.91 35.438 0.7894 41 49 101 
-15.6367 35.4306 0.775 41 49 101 
-15.5262 35.4282 0.7768 41 49 101 
-15.524 35.438 0.7805 41 49 101 
-15.3366 35.434 0.781 108 135 75 
-20.8973 35.458 0.785636 179 116 81 
-19.4325 35.4725 0.766 41 49 101 
-19.4055 35.4725 0.7835 41 49 101 
-19.3812 35.4668 0.7808 41 49 101 
-19.3544 35.45 0.7756 41 49 101 
-18.9217 35.4619 0.774286 41 49 101 
-18.9043 35.4609 0.787846 41 49 101 
-16.578 35.469 0.787 79 79 76 
-15.6326 35.4593 0.779125 41 49 101 
-15.525 35.452 0.785 41 49 101 
-15.5145 35.4673 0.7776 41 49 101 
-15.3488 35.4613 0.781333 108 135 75 
-15.3433 35.4487 0.77675 108 135 75 
-20.897 35.4917 0.7847 179 116 81 
-19.2547 35.4887 0.790667 41 49 101 
-19.237 35.487 0.79 41 49 101 
-18.9202 35.4921 0.777231 41 49 101 
-18.9028 35.4853 0.789833 41 49 101 
-16.6095 35.502 0.78975 79 79 76 
-16.5917 35.4876 0.780857 79 79 76 
-15.6277 35.491 0.782167 41 49 101 
-15.4982 35.4923 0.7744 41 49 101 
-15.4925 35.5005 0.7825 41 49 101 
-15.3606 35.4864 0.78 179 116 81 
-20.8972 35.5173 0.779833 179 116 81 
-19.487 35.531 0.767 41 49 101 
-18.9212 35.5157 0.776333 41 49 101 
-18.9076 35.5158 0.789 41 49 101 
-16.639 35.533 0.789 79 79 76 
-16.6211 35.5161 0.785 79 79 76 
-15.6238 35.5177 0.783833 41 49 101 
-15.3774 35.5256 0.778143 179 116 81 
-15.373 35.5145 0.773 179 116 81 
-20.8973 35.5456 0.776555 179 116 81 
-20.894 35.5535 0.7925 179 116 81 
-19.4959 35.5487 0.7735 41 49 101 
-19.4503 35.5557 0.792333 41 49 101 
-18.9206 35.5453 0.778571 41 49 101 
-18.9093 35.5553 0.790556 41 49 101 
-16.674 35.564 0.792 79 79 76 
-16.6476 35.5452 0.7834 79 79 76 
-15.6185 35.5475 0.774 41 49 101 
-15.3775 35.535 0.777 179 116 81 
-20.897 35.585 0.774 179 116 81 
-19.502 35.568 0.787667 41 49 101 
-19.464 35.5665 0.792 41 49 101 
-18.9214 35.5771 0.782273 41 49 101 
-18.9107 35.582 0.791667 41 49 101 
-16.6848 35.5828 0.7844 79 79 76 
-16.664 35.566 0.776 79 79 76 
-15.6153 35.5758 0.77475 41 49 101 
-15.614 35.5882 0.77875 41 49 101 
-20.897 35.606 0.771 179 116 81 
-20.8934 35.6074 0.7898 179 116 81 
-18.9246 35.6057 0.785571 41 49 101 
-18.912 35.601 0.792 41 49 101 
-16.729 35.619 0.791 79 79 76 
-16.7076 35.6035 0.786818 79 79 76 
-15.6078 35.6135 0.783923 41 49 101 
-20.8955 35.6357 0.775 179 116 81 
-20.8932 35.6402 0.785 179 116 81 
-16.763 35.652 0.793 79 79 76 
-16.7423 35.6411 0.784 79 79 76 
-15.5981 35.6408 0.779938 41 49 101 
-15.584 35.65 0.79 41 49 101 
-20.895 35.659 0.772 179 116 81 
-20.8926 35.6745 0.784 179 116 81 
-16.7677 35.672 0.782571 79 79 76 
-16.751 35.656 0.779 79 79 76 
-15.5912 35.6642 0.77325 41 49 101 
-15.5798 35.675 0.783 41 49 101 
-20.895 35.704 0.766 179 116 81 
-20.8924 35.699 0.7832 179 116 81 
-16.7895 35.7 0.78975 79 79 76 
-16.7807 35.6923 0.784333 79 79 76 
-15.5766 35.6982 0.782 41 49 101 
-20.8916 35.7311 0.780786 179 116 81 
-19.457 35.738 0.7835 41 49 101 
-19.454 35.737 0.793 41 49 101 
-16.806 35.728 0.7908 79 79 76 
-15.5724 35.731 0.784 41 49 101 
-20.8921 35.7651 0.77375 179 116 81 
-19.4573 35.7598 0.79075 41 49 101 
-16.8205 35.753 0.791 79 79 76 
-15.5696 35.7631 0.780714 41 49 101 
-20.8914 35.7934 0.7775 179 116 81 
-19.4557 35.7872 0.78325 41 49 101 
-19.454 35.796 0.792 41 49 101 
-16.835 35.777 0.793 79 79 76 
-15.566 35.7916 0.782267 41 49 101 
-20.8911 35.823 0.78375 179 116 81 
-19.4531 35.8137 0.782429 41 49 101 
-18.0889 35.8346 0.775444 79 79 76 
-18.0584 35.8344 0.774375 79 79 76 
-18.0343 35.8347 0.78225 79 79 76 
-18.0008 35.834 0.776167 79 79 76 
-17.9664 35.8342 0.78 79 79 76 
-17.939 35.8342 0.782167 79 79 76 
-17.9071 35.8336 0.779091 79 79 76 
-17.881 35.8329 0.7734 79 79 76 
-17.847 35.8335 0.78075 79 79 76 
-17.8229 35.833 0.7762 79 79 76 
-17.78 35.833 0.776571 79 79 76 
-17.7571 35.8329 0.7771 79 79 76 
-17.7277 35.8332 0.7775 79 79 76 
-17.7038 35.833 0.77425 79 79 76 
-16.8374 35.8208 0.791 79 79 76 
-15.5623 35.8149 0.778333 41 49 101 
-15.5477 35.8232 0.786667 41 49 101 
-20.8919 35.8527 0.783833 179 116 81 
-19.6074 35.8628 0.7818 79 79 76 
-19.5855 35.8611 0.777375 79 79 76 
-19.5539 35.856 0.784375 79 79 76 
-19.5273 35.8531 0.783222 79 79 76 
-19.503 35.8518 0.7798 79 79 76 
-19.4697 35.8504 0.776667 79 79 76 
-19.4415 35.8507 0.78125 79 79 76 
-19.4121 35.8594 0.777429 79 79 76 
-19.3904 35.8604 0.788 79 79 76 
-19.104 35.864 0.794 79 79 76 
-18.995 35.862 0.794 79 79 76 
-18.9495 35.8615 0.792 79 79 76 
-18.9333 35.8625 0.7915 79 79 76 
-18.8948 35.86 0.7928 79 79 76 
-18.875 35.859 0.794 79 79 76 
-18.8417 35.8627 0.79225 79 79 76 
-18.7797 35.861 0.7935 79 79 76 
-18.753 35.862 0.793 79 79 76 
-18.731 35.8625 0.7935 79 79 76 
-18.662 35.863 0.7935 79 79 76 
-18.1162 35.8527 0.7741 79 79 76 
-18.084 35.836 0.792 79 79 76 
-18.068 35.836 0.789 79 79 76 
-18.0225 35.836 0.7925 79 79 76 
-17.6943 35.8514 0.7775 79 79 76 
-16.8273 35.8443 0.789571 79 79 76 
-16.8068 35.8556 0.7772 79 79 76 
-15.5325 35.837 0.769 41 49 101 
-15.5145 35.8418 0.783769 41 49 101 
-20.8926 35.8781 0.775417 179 116 81 
-19.821 35.8925 0.77775 79 79 76 
-19.7979 35.8904 0.7836 79 79 76 
-19.7691 35.8858 0.778846 79 79 76 
-19.742 35.882 0.777846 79 79 76 
-19.7083 35.8775 0.778 79 79 76 
-19.6799 35.8739 0.778667 79 79 76 
-19.6613 35.871 0.779857 79 79 76 
-19.6168 35.8655 0.77275 79 79 76 
-19.396 35.868 0.767 79 79 76 
-19.3822 35.8694 0.7718 79 79 76 
-19.3497 35.8749 0.779462 79 79 76 
-19.315 35.88 0.780167 79 79 76 
-19.2908 35.8768 0.784 79 79 76 
-19.2576 35.8742 0.7864 79 79 76 
-19.2308 35.8758 0.7817 79 79 76 
-19.1973 35.8762 0.778545 79 79 76 
-19.1705 35.8734 0.781333 79 79 76 
-19.1411 35.8705 0.7845 79 79 76 
-19.1103 35.8724 0.779182 79 79 76 
-19.0749 35.876 0.772444 79 79 76 
-19.0517 35.8736 0.776857 79 79 76 
-19.025 35.8783 0.783125 79 79 76 
-18.9923 35.8772 0.78675 79 79 76 
-18.9561 35.8777 0.785571 79 79 76 
-18.9332 35.8787 0.785 79 79 76 
-18.894 35.8807 0.783667 79 79 76 
-18.8674 35.8755 0.786091 79 79 76 
-18.8393 35.8796 0.7844 79 79 76 
-18.8102 35.8775 0.785733 79 79 76 
-18.7785 35.8791 0.7853 79 79 76 
-18.749 35.88 0.785333 79 79 76 
-18.7205 35.8799 0.7858 79 79 76 
-18.6962 35.8818 0.7852 79 79 76 
-18.6581 35.8793 0.786571 79 79 76 
-18.6292 35.8792 0.7871 79 79 76 
-18.6079 35.8789 0.787375 79 79 76 
-18.5722 35.8842 0.7856 79 79 76 
-18.5355 35.8787 0.787875 79 79 76 
-18.509 35.8779 0.788455 79 79 76 
-18.4744 35.8774 0.7885 79 79 76 
-18.4491 35.8793 0.787667 79 79 76 
-18.4186 35.8796 0.7872 79 79 76 
-18.3903 35.8799 0.787 79 79 76 
-18.3622 35.8806 0.78675 79 79 76 
-18.3323 35.8776 0.788375 79 79 76 
-18.2961 35.8795 0.788375 79 79 76 
-18.2707 35.8813 0.788714 79 79 76 
-18.2422 35.886 0.786667 79 79 76 
-18.2114 35.8892 0.786778 79 79 76 
-18.1734 35.8906 0.7768 79 79 76 
-18.1526 35.8799 0.779563 79 79 76 
-18.1305 35.868 0.784 79 79 76 
-17.6965 35.8764 0.779375 79 79 76 
-16.819 35.8787 0.7915 79 79 76 
-16.8018 35.878 0.779111 79 79 76 
-16.782 35.894 0.768 79 79 76 
-20.893 35.91 0.778727 179 116 81 
-19.0113 35.898 0.772 79 79 76 
-18.9896 35.9035 0.780818 79 79 76 
-18.9589 35.9029 0.78425 79 79 76 
-18.9356 35.9064 0.7826 79 79 76 
-18.895 35.9025 0.7795 79 79 76 
-18.8693 35.907 0.77775 79 79 76 
-18.8405 35.9025 0.7755 79 79 76 
-18.8134 35.9014 0.7738 79 79 76 
-18.7842 35.9018 0.7734 79 79 76 
-18.7488 35.9017 0.773667 79 79 76 
-18.7207 35.9037 0.773 79 79 76 
-18.6957 35.9035 0.77375 79 79 76 
-18.6664 35.9014 0.7756 79 79 76 
-18.636 35.897 0.779 79 79 76 
-18.6057 35.8987 0.778667 79 79 76 
-18.579 35.898 0.779 79 79 76 
-18.528 35.898 0.78 79 79 76 
-18.5 35.899 0.779 79 79 76 
-18.48 35.8975 0.7795 79 79 76 
-18.4197 35.898 0.779 79 79 76 
-18.332 35.898 0.778667 79 79 76 
-18.2988 35.8965 0.779333 79 79 76 
-18.258 35.9 0.777 79 79 76 
-18.2473 35.898 0.778 79 79 76 
-18.1898 35.8997 0.77225 79 79 76 
-17.6973 35.9052 0.781 79 79 76 
-16.7998 35.9078 0.784417 79 79 76 
-20.8939 35.9422 0.780818 179 116 81 
-17.697 35.933 0.782 79 79 76 
-16.7935 35.935 0.786182 79 79 76 
-15.3757 35.9377 0.784667 179 116 81 
-15.3727 35.9487 0.785 179 116 81 
-20.895 35.982 0.775 179 116 81 
-20.894 35.966 0.782125 179 116 81 
-17.6967 35.9737 0.785571 79 79 76 
-16.7923 35.9673 0.793 79 79 76 
-15.371 35.9702 0.781 179 116 81 
-20.895 35.9993 0.778 179 116 81 
-17.696 35.9977 0.778286 79 79 76 
-15.3692 36.0039 0.7844 179 116 81 
-20.8955 36.0264 0.776727 179 116 81 
-17.6959 36.033 0.788 79 79 76 
-15.3677 36.028 0.778286 179 116 81 
-20.896 36.0605 0.778 179 116 81 
-17.6953 36.0622 0.780818 79 79 76 
-15.3662 36.059 0.7816 179 116 81 
-20.8969 36.0922 0.778111 179 116 81 
-17.6949 36.087 0.7799 79 79 76 
-15.3644 36.089 0.7821 179 116 81 
-20.897 36.1216 0.781889 179 116 81 
-17.6943 36.1206 0.779636 79 79 76 
-16.736 36.129 0.794 79 79 76 
-15.3632 36.117 0.7708 179 116 81 
-20.896 36.15 0.781462 179 116 81 
-17.6939 36.1514 0.781125 79 79 76 
-16.7093 36.1633 0.788 41 49 101 
-15.3611 36.1514 0.786556 179 116 81 
-20.896 36.1815 0.78225 179 116 81 
-17.6935 36.1777 0.78 79 79 76 
-16.7 36.17 0.79 41 49 101 
-16.6806 36.1864 0.789429 41 49 101 
-15.3599 36.1741 0.780571 179 116 81 
-20.895 36.211 0.7835 179 116 81 
-17.6926 36.2114 0.778818 79 79 76 
-16.7287 36.2217 0.774333 41 49 101 
-16.706 36.2093 0.78 41 49 101 
-16.689 36.1997 0.7845 41 49 101 
-15.3604 36.2052 0.777182 179 116 81 
-20.895 36.2376 0.780889 179 116 81 
-20.894 36.252 0.784 179 116 81 
-17.692 36.2381 0.779786 79 79 76 
-16.7637 36.2463 0.777333 41 49 101 
-16.7471 36.2331 0.777133 41 49 101 
-15.3617 36.2425 0.780833 179 116 81 
-20.894 36.2686 0.7796 179 116 81 
-17.6915 36.2644 0.784 79 79 76 
-16.7975 36.276 0.775273 41 49 101 
-16.7815 36.2627 0.77775 41 49 101 
-15.3617 36.2767 0.778667 179 116 81 
-20.8939 36.2987 0.780533 179 116 81 
-17.6908 36.2946 0.780375 79 79 76 
-16.8247 36.3005 0.773875 41 49 101 
-16.8102 36.2887 0.77875 41 49 101 
-15.4423 36.314 0.780667 41 49 101 
-15.3607 36.2997 0.776727 179 116 81 
-20.8934 36.3259 0.775444 179 116 81 
-17.6918 36.3274 0.782111 79 79 76 
-16.8555 36.3291 0.777438 41 49 101 
-15.5285 36.34 0.7665 41 49 101 
-15.5118 36.3366 0.781333 41 49 101 
-15.4823 36.323 0.777111 41 49 101 
-15.463 36.316 0.783 41 49 101 
-15.432 36.318 0.784 41 49 101 
-15.3601 36.3374 0.778286 179 116 81 
-20.894 36.3627 0.785571 179 116 81 
-20.4842 36.3644 0.778875 41 49 101 
-20.4599 36.3527 0.781375 41 49 101 
-20.4279 36.3594 0.7807 41 49 101 
-20.4042 36.3683 0.7799 41 49 101 
-17.6918 36.358 0.779222 79 79 76 
-16.906 36.374 0.776 41 49 101 
-16.8885 36.3589 0.7775 41 49 101 
-16.871 36.345 0.79 41 49 101 
-15.5953 36.3706 0.78 41 49 101 
-15.5748 36.3622 0.78075 41 49 101 
-15.5414 36.3484 0.78 41 49 101 
-15.3609 36.3535 0.778187 179 116 81 
-20.8935 36.397 0.777333 179 116 81 
-20.535 36.404 0.789 41 49 101 
-20.5149 36.388 0.7821 41 49 101 
-20.502 36.3775 0.7755 41 49 101 
-20.387 36.377 0.791 41 49 101 
-20.3706 36.3808 0.778077 41 49 101 
-20.3405 36.3925 0.78 41 49 101 
-20.3172 36.4013 0.779 41 49 101 
-17.6909 36.3899 0.775889 79 79 76 
-16.9178 36.3907 0.783833 41 49 101 
-15.6614 36.3986 0.782 41 49 101 
-15.6291 36.3844 0.778571 41 49 101 
-15.613 36.38 0.79 41 49 101 
-15.3553 36.392 0.780333 179 116 81 
-20.8937 36.4221 0.7829 179 116 81 
-20.302 36.407 0.779 41 49 101 
-20.2795 36.4153 0.776 41 49 101 
-20.2487 36.4276 0.7795 41 49 101 
-20.232 36.432 0.765 41 49 101 
-17.69 36.4163 0.7848 79 79 76 
-16.9406 36.4239 0.7765 41 49 101 
-16.9335 36.4145 0.7825 41 49 101 
-15.7424 36.4322 0.7822 41 49 101 
-15.7203 36.422 0.777857 41 49 101 
-15.6917 36.4099 0.774714 41 49 101 
-15.3545 36.4157 0.783167 179 116 81 
-20.8935 36.4516 0.7796 81 163 148 
-20.22 36.4383 0.777875 41 49 101 
-20.1923 36.4487 0.777333 41 49 101 
-20.1631 36.4601 0.778571 41 49 101 
-17.6893 36.445 0.778 79 79 76 
-16.953 36.4464 0.775714 41 49 101 
-15.8065 36.4588 0.778385 41 49 101 
-15.7844 36.4486 0.7755 41 49 101 
-15.756 36.4384 0.785429 41 49 101 
-20.8867 36.4835 0.774286 81 163 148 
-20.8452 36.4862 0.7785 81 163 148 
-20.8185 36.4845 0.77825 81 163 148 
-20.7923 36.483 0.778222 81 163 148 
-20.7594 36.4811 0.78 81 163 148 
-20.7297 36.4793 0.77725 81 163 148 
-20.7043 36.4777 0.782667 81 163 148 
-20.6651 36.4753 0.771429 81 163 148 
-20.6338 36.4732 0.7764 81 163 148 
-20.6117 36.4719 0.782 81 163 148 
-20.5862 36.4702 0.7828 81 163 148 
-20.149 36.465 0.774 41 49 101 
-20.1311 36.4731 0.779308 41 49 101 
-20.1048 36.4849 0.7795 41 49 101 
-20.0827 36.4913 0.774667 41 49 101 
-17.6882 36.4864 0.7764 79 79 76 
-16.9725 36.4849 0.777333 41 49 101 
-16.9622 36.4725 0.786 41 49 101 
-15.8372 36.4786 0.779714 41 49 101 
-15.824 36.467 0.789 41 49 101 
-20.085 36.503 0.794 41 49 101 
-20.0626 36.5077 0.778176 41 49 101 
-20.0533 36.5222 0.7745 41 49 101 
-17.6879 36.5111 0.782545 79 79 76 
-16.985 36.51 0.7788 41 49 101 
-15.8418 36.507 0.778625 41 49 101 
-20.0603 36.532 0.787667 41 49 101 
-20.0504 36.5369 0.780182 41 49 101 
-17.687 36.5425 0.77825 79 79 76 
-17.004 36.5455 0.7785 41 49 101 
-16.994 36.538 0.794 41 49 101 
-15.8391 36.5395 0.781273 41 49 101 
-17.6863 36.5718 0.780667 79 79 76 
-17.0115 36.5708 0.780167 41 49 101 
-15.8385 36.5595 0.777 41 49 101 
-17.6856 36.601 0.778444 79 79 76 
-16.9655 36.61 0.774 41 49 101 
-16.96 36.5998 0.784375 41 49 101 
-15.794 36.606 0.792 179 116 81 
-19.918 36.6437 0.788 179 116 81 
-19.8867 36.6402 0.778273 179 116 81 
-19.8622 36.6365 0.778 179 116 81 
-19.8255 36.631 0.781 179 116 81 
-19.808 36.628 0.788667 179 116 81 
-17.685 36.6276 0.7786 79 79 76 
-17.3025 36.644 0.777167 179 116 81 
-17.2808 36.6436 0.78075 179 116 81 
-17.2471 36.6432 0.787778 179 116 81 
-17.2124 36.6419 0.782286 179 116 81 
-17.1906 36.6414 0.781625 179 116 81 
-17.1602 36.6405 0.780875 179 116 81 
-17.1315 36.6397 0.779929 179 116 81 
-17.0969 36.639 0.779429 179 116 81 
-17.0697 36.6381 0.7816 179 116 81 
-17.0391 36.6371 0.773857 179 116 81 
-17.0065 36.6365 0.774333 41 49 101 
-16.9745 36.6257 0.777846 41 49 101 
-15.9755 36.644 0.7665 179 116 81 
-15.9555 36.644 0.77875 179 116 81 
-15.9296 36.6433 0.781818 179 116 81 
-15.899 36.6417 0.775667 179 116 81 
-15.8687 36.6404 0.776 179 116 81 
-15.8438 36.6397 0.777167 179 116 81 
-15.8116 36.6383 0.778889 179 116 81 
-15.7796 36.6332 0.778 179 116 81 
-20.0293 36.661 0.78175 179 116 81 
-20.0066 36.6578 0.779667 179 116 81 
-19.9805 36.6538 0.784167 179 116 81 
-19.9475 36.6487 0.7795 179 116 81 
-19.9237 36.646 0.7705 179 116 81 
-17.6689 36.6493 0.776546 79 79 76 
-17.6362 36.6492 0.774 179 116 81 
-17.6065 36.6491 0.773375 179 116 81 
-17.583 36.6492 0.7802 179 116 81 
-17.5533 36.6491 0.777429 179 116 81 
-17.5163 36.649 0.776 179 116 81 
-17.4952 36.649 0.7702 179 116 81 
-17.4626 36.649 0.7725 179 116 81 
-17.4258 36.649 0.775385 179 116 81 
-17.3993 36.6481 0.777667 179 116 81 
-17.3704 36.6466 0.78175 179 116 81 
-17.3427 36.6456 0.777444 179 116 81 
-17.3185 36.645 0.788 179 116 81 
-16.73 36.6558 0.77425 179 116 81 
-16.7074 36.6588 0.778 179 116 81 
-16.6782 36.658 0.781846 179 116 81 
-16.6487 36.6583 0.779 179 116 81 
-16.6188 36.6582 0.77575 179 116 81 
-16.5869 36.6568 0.778833 179 116 81 
-16.5641 36.6561 0.779857 179 116 81 
-16.527 36.655 0.7825 179 116 81 
-16.4994 36.6544 0.775786 179 116 81 
-16.4748 36.6535 0.782267 179 116 81 
-16.4401 36.6537 0.775667 179 116 81 
-16.4049 36.6539 0.774125 179 116 81 
-16.3776 36.654 0.778833 179 116 81 
-16.3461 36.654 0.773571 179 116 81 
-16.3218 36.6538 0.7782 179 116 81 
-16.2903 36.6533 0.778 179 116 81 
-16.2617 36.6529 0.781818 179 116 81 
-16.2268 36.6522 0.7735 179 116 81 
-16.1976 36.6516 0.779364 179 116 81 
-16.1745 36.651 0.771 179 116 81 
-16.1413 36.6506 0.781 179 116 81 
-16.1064 36.6498 0.778154 179 116 81 
-16.0788 36.649 0.777455 179 116 81 
-16.05 36.6479 0.779182 179 116 81 
-16.0234 36.647 0.780909 179 116 81 
-15.9879 36.6456 0.780111 179 116 81 
-15.9592 36.6452 0.7895 179 116 81 
-17.301 33.7318 0.80525 81 109 114 
-17.2765 33.728 0.8155 81 109 114 
-17.2454 33.728 0.80775 179 116 81 
-17.2221 33.728 0.8097 179 116 81 
-17.192 33.7288 0.804 179 116 81 
-17.1586 33.7286 0.8075 179 116 81 
-17.1325 33.728 0.807 179 116 81 
-17.1003 33.728 0.800889 179 116 81 
-17.0637 33.728 0.807625 179 116 81 
-17.0413 33.728 0.814333 179 116 81 
-17.0116 33.727 0.8065 179 116 81 
-16.9787 33.727 0.810429 179 116 81 
-16.95 33.727 0.811889 179 116 81 
-16.9278 33.727 0.8074 179 116 81 
-16.8891 33.7266 0.809294 179 116 81 
-16.86 33.726 0.81025 179 116 81 
-16.8264 33.726 0.8072 179 116 81 
-16.8009 33.726 0.808286 179 116 81 
-16.774 33.726 0.8092 179 116 81 
-16.7414 33.725 0.810375 179 116 81 
-16.7099 33.725 0.8101 179 116 81 
-16.6846 33.725 0.8044 179 116 81 
-16.6469 33.725 0.811 179 116 81 
-16.6192 33.7251 0.806643 179 116 81 
-16.5896 33.726 0.811182 179 116 81 
-16.5652 33.7265 0.809167 179 116 81 
-16.5297 33.7275 0.811333 179 116 81 
-16.5012 33.7279 0.808091 179 116 81 
-16.4687 33.7286 0.808429 179 116 81 
-16.4399 33.729 0.802714 179 116 81 
-16.4113 33.7299 0.807125 179 116 81 
-16.3728 33.7307 0.810667 179 116 81 
-16.3484 33.731 0.805222 179 116 81 
-16.3143 33.732 0.810273 179 116 81 
-16.2994 33.732 0.811 179 116 81 
-20.9332 33.7542 0.8082 179 116 81 
-20.9107 33.75 0.813455 179 116 81 
-20.88 33.7492 0.8129 179 116 81 
-20.8502 33.7484 0.8142 179 116 81 
-20.8154 33.748 0.808 179 116 81 
-20.7902 33.7478 0.8101 179 116 81 
-20.7633 33.748 0.808667 179 116 81 
-20.73 33.748 0.817572 179 116 81 
-20.7007 33.7479 0.806733 179 116 81 
-20.6698 33.748 0.817538 179 116 81 
-20.6392 33.748 0.80925 179 116 81 
-20.614 33.748 0.809273 179 116 81 
-20.58 33.7485 0.8093 179 116 81 
-20.5455 33.749 0.807455 179 116 81 
-20.5158 33.749 0.813 179 116 81 
-20.4895 33.749 0.816143 179 116 81 
-20.4593 33.749 0.808778 179 116 81 
-20.4283 33.75 0.808 179 116 81 
-20.4 33.75 0.807545 179 116 81 
-20.3699 33.75 0.8114 179 116 81 
-20.3415 33.7498 0.814818 179 116 81 
-20.3113 33.7486 0.809125 179 116 81 
-20.2759 33.7465 0.809182 179 116 81 
-20.2435 33.7451 0.808273 179 116 81 
-20.2172 33.745 0.811417 179 116 81 
-20.1912 33.745 0.802889 179 116 81 
-20.1593 33.7458 0.813769 179 116 81 
-20.1373 33.7565 0.811818 81 109 114 
-19.6718 33.764 0.8162 81 109 114 
-19.6488 33.7639 0.805 81 109 114 
-19.6209 33.7634 0.807875 81 109 114 
-19.5923 33.763 0.805667 81 109 114 
-19.556 33.762 0.814 81 109 114 
-19.5282 33.7612 0.811333 81 109 114 
-19.4977 33.7608 0.814231 81 109 114 
-19.4718 33.7604 0.807333 81 109 114 
-19.442 33.7596 0.8159 81 109 114 
-19.414 33.759 0.808875 81 109 114 
-19.3794 33.7584 0.804625 81 109 114 
-19.3562 33.7579 0.812 81 109 114 
-19.3237 33.7571 0.81075 81 109 114 
-19.2849 33.7563 0.8117 81 109 114 
-19.2611 33.7559 0.811692 81 109 114 
-19.2295 33.7553 0.811059 81 109 114 
-19.1978 33.755 0.805889 81 109 114 
-19.1734 33.7546 0.81 81 109 114 
-19.1333 33.754 0.8143 81 109 114 
-19.1093 33.754 0.8095 81 109 114 
-19.0774 33.7531 0.811071 81 109 114 
-19.0432 33.7528 0.8095 81 109 114 
-19.0172 33.7522 0.806 81 109 114 
-18.9887 33.752 0.8119 81 109 114 
-18.958 33.7512 0.813 81 109 114 
-18.9273 33.751 0.806545 81 109 114 
-18.9024 33.7506 0.8082 81 109 114 
-18.869 33.75 0.805286 81 109 114 
-18.8404 33.7497 0.8085 81 109 114 
-18.819 33.749 0.8095 81 109 114 
-18.7817 33.7487 0.8085 81 109 114 
-18.7513 33.7482 0.8085 81 109 114 
-18.7194 33.7479 0.809687 81 109 114 
-18.6938 33.7473 0.812875 81 109 114 
-18.6568 33.747 0.807333 81 109 114 
-18.6278 33.747 0.810778 81 109 114 
-18.602 33.747 0.807111 81 109 114 
-18.5699 33.747 0.805286 81 109 114 
-18.54 33.747 0.809 81 109 114 
-18.5084 33.747 0.8125 81 109 114 
-18.477 33.747 0.8032 81 109 114 
-18.4471 33.747 0.810857 81 109 114 
-18.422 33.747 0.811692 81 109 114 
-18.388 33.747 0.8094 81 109 114 
-18.3593 33.7469 0.809286 81 109 114 
-18.326 33.747 0.802889 81 109 114 
-18.3011 33.747 0.812375 81 109 114 
-18.2689 33.747 0.8094 81 109 114 
-18.2373 33.747 0.806769 81 109 114 
-18.2083 33.747 0.808556 81 109 114 
-18.1796 33.747 0.809077 81 109 114 
-18.1511 33.747 0.810111 81 109 114 
-18.1216 33.747 0.8088 81 109 114 
-18.0955 33.747 0.816 81 109 114 
-18.0636 33.747 0.808714 81 109 114 
-18.0297 33.747 0.8045 81 109 114 
-17.9964 33.747 0.806444 81 109 114 
-17.9688 33.747 0.804846 81 109 114 
-17.9381 33.747 0.8082 81 109 114 
-17.9102 33.747 0.8135 81 109 114 
-17.8773 33.7472 0.814833 81 109 114 
-17.8512 33.7473 0.812571 81 109 114 
-17.8216 33.7474 0.81125 81 109 114 
-17.7901 33.7477 0.8065 81 109 114 
-17.7619 33.7479 0.804286 81 109 114 
-17.7238 33.748 0.81075 81 109 114 
-17.6978 33.7479 0.81225 81 109 114 
-17.6735 33.748 0.807636 81 109 114 
-17.6384 33.748 0.813875 81 109 114 
-17.6077 33.748 0.811429 81 109 114 
-17.5805 33.748 0.812182 81 109 114 
-17.5516 33.7483 0.807375 81 109 114 
-17.5225 33.749 0.81375 81 109 114 
-17.4903 33.749 0.808 81 109 114 
-17.4586 33.7496 0.807571 81 109 114 
-17.4294 33.75 0.807222 81 109 114 
-17.4007 33.75 0.8145 81 109 114 
-17.3676 33.7484 0.808571 81 109 114 
-17.3352 33.7409 0.814444 81 109 114 
-17.3188 33.7368 0.808333 81 109 114 
-16.2889 33.7484 0.813313 179 116 81 
-20.9363 33.7793 0.8105 179 116 81 
-20.1224 33.7696 0.8092 81 109 114 
-20.0923 33.773 0.809286 81 109 114 
-20.0672 33.7721 0.811333 81 109 114 
-20.037 33.7711 0.809333 81 109 114 
-20.0066 33.7702 0.807444 81 109 114 
-19.9782 33.7697 0.809643 81 109 114 
-19.9507 33.7693 0.812833 81 109 114 
-19.9259 33.769 0.80725 81 109 114 
-19.8885 33.7681 0.816 81 109 114 
-19.862 33.768 0.81 81 109 114 
-19.8272 33.7674 0.812154 81 109 114 
-19.8003 33.767 0.811111 81 109 114 
-19.771 33.7661 0.815714 81 109 114 
-19.7399 33.7659 0.806286 81 109 114 
-19.7105 33.7651 0.808385 81 109 114 
-19.681 33.765 0.8044 81 109 114 
-16.288 33.7838 0.806 223 52 52 
-20.9376 33.8126 0.808714 179 116 81 
-16.2876 33.81 0.808 223 52 52 
-20.9366 33.8386 0.8096 179 116 81 
-16.287 33.8418 0.809 223 52 52 
-20.9355 33.8685 0.804125 179 116 81 
-16.2863 33.8709 0.810833 223 52 52 
-20.9328 33.9008 0.8148 179 116 81 
-16.2859 33.8983 0.813 223 52 52 
-20.9332 33.9287 0.805917 179 116 81 
-16.2851 33.9301 0.812286 223 52 52 
-20.932 33.9602 0.807667 179 116 81 
-16.285 33.9612 0.809455 223 52 52 
-20.9303 33.9967 0.812857 179 116 81 
-16.284 33.988 0.8195 223 52 52 
-20.9293 34.019 0.812333 179 116 81 
-16.284 34.022 0.8098 223 52 52 
-20.9287 34.0505 0.809818 179 116 81 
-16.2838 34.0483 0.806778 223 52 52 
-16.2188 34.0637 0.81625 223 52 52 
-16.204 34.061 0.80975 223 52 52 
-16.1695 34.0539 0.807333 223 52 52 
-16.1364 34.0461 0.81025 223 52 52 
-16.122 34.042 0.821 223 52 52 
-20.928 34.0798 0.808 179 116 81 
-16.2808 34.0658 0.81625 223 52 52 
-16.2612 34.069 0.804667 223 52 52 
-16.227 34.0667 0.80475 223 52 52 
-20.9273 34.1107 0.807 179 116 81 
-20.9264 34.1396 0.80725 179 116 81 
-20.924 34.1395 0.8215 179 116 81 
-16.28 34.1455 0.809 108 135 75 
-15.328 34.1466 0.8078 108 135 75 
-15.304 34.141 0.809333 108 135 75 
-15.2652 34.1386 0.808 108 135 75 
-15.2417 34.1373 0.795667 108 135 75 
-20.9258 34.1708 0.805333 179 116 81 
-20.924 34.164 0.821 179 116 81 
-16.2783 34.1683 0.803 108 135 75 
-16.2733 34.1677 0.81775 108 135 75 
-15.468 34.184 0.818 108 135 75 
-15.4494 34.1837 0.811571 108 135 75 
-15.419 34.1827 0.809857 108 135 75 
-15.3882 34.1733 0.809556 108 135 75 
-15.3586 34.1603 0.809875 108 135 75 
-20.9253 34.2033 0.800667 179 116 81 
-20.9237 34.205 0.813 179 116 81 
-16.2676 34.2103 0.805222 108 135 75 
-16.0773 34.2127 0.810667 108 135 75 
-16.0469 34.2107 0.812667 108 135 75 
-16.0187 34.2093 0.808333 108 135 75 
-15.9856 34.2072 0.807571 108 135 75 
-15.9623 34.2062 0.81 108 135 75 
-15.9309 34.2046 0.809 108 135 75 
-15.8923 34.2024 0.808286 108 135 75 
-15.8767 34.2016 0.807286 108 135 75 
-15.8434 34.1995 0.8151 108 135 75 
-15.8067 34.1976 0.8116 108 135 75 
-15.7775 34.1964 0.804 108 135 75 
-15.7495 34.1948 0.807818 108 135 75 
-15.7168 34.1933 0.811562 108 135 75 
-15.6879 34.1918 0.811455 108 135 75 
-15.6613 34.1909 0.813429 108 135 75 
-15.6315 34.1898 0.812667 108 135 75 
-15.6033 34.189 0.809778 108 135 75 
-15.5703 34.1879 0.808588 108 135 75 
-15.5406 34.1869 0.8084 108 135 75 
-15.5104 34.186 0.808778 108 135 75 
-15.4805 34.185 0.8135 108 135 75 
-20.925 34.2155 0.8 179 116 81 
-20.9229 34.2287 0.813556 179 116 81 
-16.2517 34.2168 0.816167 108 135 75 
-16.2288 34.2187 0.810667 108 135 75 
-16.2051 34.2212 0.811222 108 135 75 
-16.168 34.2248 0.8087 108 135 75 
-16.1368 34.2262 0.8113 108 135 75 
-16.1095 34.2198 0.809364 108 135 75 
-16.0925 34.2153 0.807167 108 135 75 
-20.9222 34.2578 0.813167 179 116 81 
-20.9219 34.2871 0.809857 179 116 81 
-20.9218 34.3159 0.804889 179 116 81 
-20.9205 34.3493 0.807375 179 116 81 
-20.9194 34.3719 0.811445 179 116 81 
-20.919 34.4086 0.807571 179 116 81 
-20.9187 34.4388 0.80325 179 116 81 
-20.9177 34.4691 0.805556 179 116 81 
-20.9167 34.5047 0.805667 179 116 81 
-20.9162 34.5299 0.804417 179 116 81 
-20.915 34.5606 0.8072 179 116 81 
-20.9142 34.5874 0.808125 179 116 81 
-20.9131 34.6183 0.8115 179 116 81 
-20.9128 34.6523 0.807222 179 116 81 
-20.9111 34.6758 0.814556 179 116 81 
-20.911 34.7088 0.807889 179 116 81 
-20.9098 34.7329 0.813182 179 116 81 
-20.9093 34.7697 0.810375 179 116 81 
-20.909 34.8015 0.8052 179 116 81 
-20.908 34.8281 0.809222 179 116 81 
-20.9071 34.8647 0.8076 179 116 81 
-20.9064 34.8901 0.807111 179 116 81 
-20.9052 34.9208 0.811273 179 116 81 
-20.9046 34.9538 0.80925 179 116 81 
-20.9043 34.9775 0.807273 179 116 81 
-20.9029 35.0066 0.812818 179 116 81 
-15.325 35.0192 0.8144 108 135 75 
-15.2993 35.0113 0.811167 108 135 75 
-20.9023 35.0423 0.8104 179 116 81 
-15.377 35.053 0.809 108 135 75 
-15.3621 35.0365 0.808625 108 135 75 
-20.9024 35.0689 0.804143 179 116 81 
-15.376 35.055 0.804 108 135 75 
-15.3699 35.0705 0.8115 108 135 75 
-20.9013 35.1004 0.804857 179 116 81 
-15.3565 35.1004 0.810133 108 135 75 
-20.8999 35.1336 0.810875 179 116 81 
-15.3485 35.116 0.808 108 135 75 
-15.3368 35.1343 0.813444 108 135 75 
-20.8989 35.1617 0.812444 179 116 81 
-15.3256 35.1591 0.803 108 135 75 
-20.8976 35.191 0.815 179 116 81 
-15.3252 35.1934 0.810333 108 135 75 
-20.8982 35.2139 0.809 179 116 81 
-15.3259 35.22 0.809857 108 135 75 
-20.8972 35.2482 0.8105 179 116 81 
-15.3265 35.2495 0.807 108 135 75 
-20.8971 35.2794 0.8071 179 116 81 
-20.894 35.287 0.824 179 116 81 
-15.3269 35.2804 0.811333 108 135 75 
-20.8963 35.307 0.808143 179 116 81 
-20.894 35.314 0.821667 179 116 81 
-15.3255 35.3058 0.8015 108 135 75 
-20.8963 35.3415 0.805167 179 116 81 
-20.8935 35.3405 0.8205 179 116 81 
-19.158 35.3535 0.8045 41 49 101 
-19.1398 35.3446 0.807875 41 49 101 
-19.1183 35.3419 0.811556 41 49 101 
-15.5962 35.3494 0.8188 41 49 101 
-15.5676 35.3389 0.805467 41 49 101 
-15.5438 35.3434 0.8134 41 49 101 
-15.3228 35.3435 0.807833 108 135 75 
-20.896 35.3677 0.804 179 116 81 
-20.8937 35.374 0.816 179 116 81 
-19.218 35.38 0.811 41 49 101 
-19.1988 35.3713 0.8089 41 49 101 
-19.1703 35.3587 0.811091 41 49 101 
-19.127 35.3687 0.823333 41 49 101 
-19.1136 35.3638 0.808667 41 49 101 
-19.0745 35.3805 0.7955 41 49 101 
-18.964 35.3793 0.800667 41 49 101 
-15.6463 35.372 0.802143 41 49 101 
-15.632 35.364 0.814 41 49 101 
-15.612 35.355 0.803 41 49 101 
-15.5372 35.3675 0.810875 41 49 101 
-15.3211 35.3705 0.812091 108 135 75 
-20.896 35.3985 0.801 179 116 81 
-20.8928 35.406 0.8158 179 116 81 
-19.2838 35.409 0.8146 41 49 101 
-19.2589 35.398 0.810429 41 49 101 
-19.2357 35.3873 0.816667 41 49 101 
-19.1052 35.3933 0.813333 41 49 101 
-19.081 35.3993 0.8115 41 49 101 
-19.048 35.3987 0.803 41 49 101 
-19.0222 35.4073 0.803167 41 49 101 
-18.9893 35.3975 0.803273 41 49 101 
-18.959 35.3981 0.813222 41 49 101 
-18.9371 35.409 0.807273 41 49 101 
-15.645 35.3865 0.8115 41 49 101 
-15.64 35.4037 0.816333 41 49 101 
-15.5288 35.3984 0.809091 41 49 101 
-15.3214 35.3979 0.810667 108 135 75 
-20.896 35.433 0.7975 179 116 81 
-20.893 35.4243 0.8125 179 116 81 
-19.3429 35.4372 0.8098 41 49 101 
-19.3211 35.4239 0.804928 41 49 101 
-19.303 35.418 0.806 41 49 101 
-18.9281 35.4238 0.814625 41 49 101 
-18.9123 35.4408 0.8035 41 49 101 
-15.6363 35.4282 0.809539 41 49 101 
-15.525 35.4286 0.803125 41 49 101 
-15.5191 35.431 0.816857 41 49 101 
-15.3352 35.43 0.811 108 135 75 
-20.896 35.459 0.796 179 116 81 
-20.8931 35.4575 0.809 179 116 81 
-19.379 35.4659 0.809263 41 49 101 
-19.361 35.454 0.81 41 49 101 
-19.23 35.475 0.818 41 49 101 
-19.195 35.473 0.818 41 49 101 
-19.1745 35.4697 0.818667 41 49 101 
-18.9008 35.4597 0.810625 41 49 101 
-16.5775 35.4695 0.818 79 79 76 
-16.563 35.4597 0.813667 79 79 76 
-15.6299 35.4589 0.812429 41 49 101 
-15.5055 35.4519 0.804 41 49 101 
-15.4901 35.4614 0.813429 41 49 101 
-15.3482 35.4587 0.807333 108 135 75 
-20.895 35.4825 0.796 179 116 81 
-20.8921 35.4877 0.811714 179 116 81 
-19.426 35.504 0.823 41 49 101 
-19.4111 35.4922 0.819625 41 49 101 
-19.2854 35.4898 0.8174 41 49 101 
-19.2622 35.4836 0.811385 41 49 101 
-19.2296 35.4796 0.808 41 49 101 
-19.2027 35.4782 0.8065 41 49 101 
-18.892 35.5015 0.7985 41 49 101 
-18.8793 35.4911 0.807571 41 49 101 
-16.612 35.491 0.802 79 79 76 
-16.5957 35.481 0.809667 79 79 76 
-15.6245 35.4899 0.808529 41 49 101 
-15.3646 35.4953 0.813111 179 116 81 
-20.8922 35.5227 0.807231 179 116 81 
-19.4371 35.525 0.810357 41 49 101 
-19.419 35.5103 0.8085 41 49 101 
-18.8896 35.5253 0.801714 41 49 101 
-18.8727 35.531 0.813333 41 49 101 
-16.6677 35.5283 0.817667 79 79 76 
-16.6497 35.5223 0.807444 79 79 76 
-16.6277 35.5127 0.796667 79 79 76 
-15.6196 35.5199 0.807 41 49 101 
-15.6125 35.5325 0.816 41 49 101 
-15.3766 35.523 0.8074 179 116 81 
-15.372 35.5125 0.802 179 116 81 
-20.8916 35.5486 0.8068 179 116 81 
-19.456 35.563 0.795 41 49 101 
-19.4448 35.5522 0.813937 41 49 101 
-18.8939 35.5466 0.800429 41 49 101 
-18.8697 35.5477 0.8165 41 49 101 
-16.71 35.564 0.823 79 79 76 
-16.6777 35.5464 0.8107 79 79 76 
-16.662 35.543 0.8 79 79 76 
-15.6176 35.546 0.8016 41 49 101 
-15.6093 35.5517 0.814167 41 49 101 
-15.375 35.535 0.797 179 116 81 
-20.8898 35.5781 0.813077 179 116 81 
-19.4898 35.5814 0.8116 41 49 101 
-19.4661 35.5681 0.807286 41 49 101 
-18.9205 35.592 0.8105 41 49 101 
-18.8968 35.5827 0.8079 41 49 101 
-18.8714 35.578 0.8176 41 49 101 
-16.7129 35.5801 0.811429 79 79 76 
-16.68 35.565 0.796 79 79 76 
-15.615 35.572 0.796 41 49 101 
-15.6037 35.5764 0.811091 41 49 101 
-20.8894 35.6046 0.8117 179 116 81 
-19.502 35.602 0.816 41 49 101 
-18.927 35.6 0.799 41 49 101 
-18.9009 35.6004 0.8048 41 49 101 
-18.879 35.5975 0.8155 41 49 101 
-16.7636 35.6204 0.820375 79 79 76 
-16.7392 35.6111 0.807364 79 79 76 
-16.7178 35.5992 0.799333 79 79 76 
-15.5969 35.6105 0.7994 41 49 101 
-15.5765 35.616 0.818 41 49 101 
-20.8882 35.6425 0.813909 179 116 81 
-16.7654 35.6416 0.8046 79 79 76 
-16.749 35.6315 0.798 79 79 76 
-15.5855 35.6365 0.797 41 49 101 
-15.5768 35.6381 0.807182 41 49 101 
-20.889 35.673 0.8062 179 116 81 
-19.4373 35.6747 0.818333 41 49 101 
-16.7965 35.68 0.815 79 79 76 
-16.7803 35.6668 0.803333 79 79 76 
-15.5714 35.6714 0.8085 41 49 101 
-20.8885 35.6992 0.815375 179 116 81 
-19.4445 35.6992 0.806 41 49 101 
-16.817 35.708 0.821 79 79 76 
-16.8029 35.6998 0.808438 79 79 76 
-15.5686 35.703 0.80575 41 49 101 
-20.889 35.7264 0.812286 179 116 81 
-19.4479 35.729 0.81025 41 49 101 
-16.8228 35.7307 0.814222 79 79 76 
-16.8092 35.7253 0.79775 79 79 76 
-15.9473 35.7303 0.818 79 79 76 
-15.943 35.73 0.814 79 79 76 
-15.5654 35.7274 0.808125 41 49 101 
-20.8898 35.7544 0.813 179 116 81 
-19.4886 35.7664 0.805 41 49 101 
-19.477 35.7672 0.811667 41 49 101 
-19.4519 35.7558 0.81075 41 49 101 
-16.8307 35.7554 0.81 79 79 76 
-15.9478 35.758 0.816 79 79 76 
-15.943 35.766 0.81 79 79 76 
-15.5603 35.7605 0.81275 41 49 101 
-20.89 35.7863 0.8046 179 116 81 
-19.487 35.776 0.8 41 49 101 
-19.4673 35.778 0.811333 41 49 101 
-19.452 35.7925 0.806375 41 49 101 
-16.8465 35.7915 0.802 79 79 76 
-16.8411 35.7904 0.813375 79 79 76 
-15.9487 35.7847 0.814429 79 79 76 
-15.5593 35.7941 0.803857 41 49 101 
-20.891 35.8233 0.809167 179 116 81 
-19.4736 35.8332 0.8134 79 79 76 
-19.4511 35.8173 0.806143 41 49 101 
-17.928 35.835 0.795 79 79 76 
-17.912 35.835 0.798 79 79 76 
-17.877 35.835 0.799 79 79 76 
-17.8608 35.835 0.8 79 79 76 
-17.8243 35.835 0.803 79 79 76 
-17.802 35.835 0.798 79 79 76 
-17.7586 35.835 0.805375 79 79 76 
-17.7227 35.835 0.803 79 79 76 
-17.703 35.835 0.796 79 79 76 
-16.8499 35.8174 0.806889 79 79 76 
-16.8425 35.827 0.796 79 79 76 
-15.95 35.8184 0.8172 79 79 76 
-15.558 35.8085 0.803 41 49 101 
-15.532 35.8263 0.817667 41 49 101 
-15.5202 35.8322 0.817 41 49 101 
-20.8917 35.8555 0.813 179 116 81 
-19.6172 35.8627 0.806333 79 79 76 
-19.5893 35.8579 0.805417 79 79 76 
-19.5555 35.8521 0.809636 79 79 76 
-19.527 35.8481 0.809333 79 79 76 
-19.4978 35.8448 0.8109 79 79 76 
-19.4732 35.8468 0.805077 79 79 76 
-19.443 35.8507 0.812 79 79 76 
-19.404 35.8554 0.813125 79 79 76 
-19.3837 35.858 0.808571 79 79 76 
-19.3502 35.861 0.816167 79 79 76 
-19.3167 35.8633 0.8175 79 79 76 
-19.2925 35.864 0.8095 79 79 76 
-19.193 35.864 0.803 79 79 76 
-19.159 35.864 0.801 79 79 76 
-19.1045 35.864 0.7955 79 79 76 
-19.011 35.864 0.797 79 79 76 
-18.984 35.8635 0.8015 79 79 76 
-18.9603 35.8635 0.8075 79 79 76 
-18.9296 35.8626 0.810375 79 79 76 
-18.8996 35.8619 0.814125 79 79 76 
-18.8677 35.8595 0.811 79 79 76 
-18.8424 35.8584 0.810857 79 79 76 
-18.8027 35.855 0.8015 79 79 76 
-18.7814 35.8557 0.807056 79 79 76 
-18.7515 35.8541 0.8075 79 79 76 
-18.7183 35.8539 0.804722 79 79 76 
-18.6885 35.8523 0.805833 79 79 76 
-18.6653 35.854 0.808 79 79 76 
-18.6278 35.8512 0.8115 79 79 76 
-18.5996 35.8503 0.807 79 79 76 
-18.5678 35.8524 0.806667 79 79 76 
-18.5372 35.85 0.802231 79 79 76 
-18.5081 35.8507 0.807053 79 79 76 
-18.4804 35.8489 0.805267 79 79 76 
-18.451 35.8466 0.809417 79 79 76 
-18.4173 35.8489 0.807563 79 79 76 
-18.3919 35.8501 0.808611 79 79 76 
-18.361 35.8564 0.8035 79 79 76 
-18.3318 35.8483 0.815222 79 79 76 
-18.3008 35.8527 0.814 79 79 76 
-18.2666 35.8526 0.8178 79 79 76 
-18.2448 35.857 0.816 79 79 76 
-18.2059 35.8591 0.818444 79 79 76 
-18.182 35.858 0.8225 79 79 76 
-18.1443 35.86 0.821 79 79 76 
-18.1191 35.8501 0.805769 79 79 76 
-18.091 35.8379 0.811 79 79 76 
-18.0602 35.8371 0.808 79 79 76 
-18.028 35.8373 0.809429 79 79 76 
-17.9977 35.8366 0.805833 79 79 76 
-17.9733 35.837 0.81225 79 79 76 
-17.9409 35.837 0.812 79 79 76 
-17.9083 35.8367 0.813667 79 79 76 
-17.885 35.8363 0.810333 79 79 76 
-17.8427 35.8361 0.810857 79 79 76 
-17.8221 35.8362 0.814444 79 79 76 
-17.7846 35.8368 0.8208 79 79 76 
-17.76 35.836 0.81375 79 79 76 
-17.733 35.836 0.818333 79 79 76 
-17.6983 35.8507 0.809083 79 79 76 
-16.8482 35.846 0.8165 79 79 76 
-16.841 35.8463 0.802667 79 79 76 
-15.948 35.853 0.817333 79 79 76 
-15.944 35.855 0.807 79 79 76 
-15.5018 35.8412 0.805333 41 49 101 
-15.4875 35.843 0.8215 41 49 101 
-20.892 35.8817 0.809929 179 116 81 
-19.8015 35.8938 0.806 79 79 76 
-19.767 35.8892 0.8126 79 79 76 
-19.7431 35.8851 0.807687 79 79 76 
-19.7059 35.8783 0.805667 79 79 76 
-19.6803 35.8739 0.808625 79 79 76 
-19.648 35.868 0.8078 79 79 76 
-19.6323 35.8657 0.801667 79 79 76 
-19.338 35.866 0.806 79 79 76 
-19.3191 35.8683 0.80275 79 79 76 
-19.2886 35.8676 0.802909 79 79 76 
-19.2604 35.8666 0.808182 79 79 76 
-19.2305 35.8667 0.8095 79 79 76 
-19.1989 35.8669 0.808333 79 79 76 
-19.1676 35.8671 0.80925 79 79 76 
-19.1455 35.8677 0.810833 79 79 76 
-19.1023 35.8689 0.811286 79 79 76 
-19.0807 35.8695 0.811417 79 79 76 
-19.0521 35.868 0.807077 79 79 76 
-19.0254 35.8667 0.807 79 79 76 
-18.9955 35.8672 0.81625 79 79 76 
-18.968 35.8655 0.8155 79 79 76 
-18.935 35.8653 0.821667 79 79 76 
-18.3225 35.869 0.795 79 79 76 
-18.2998 35.8668 0.8 79 79 76 
-18.2657 35.8717 0.798667 79 79 76 
-18.2332 35.8718 0.802333 79 79 76 
-18.2116 35.8762 0.800111 79 79 76 
-18.1768 35.875 0.8055 79 79 76 
-18.1457 35.8678 0.804091 79 79 76 
-17.6983 35.8796 0.810857 79 79 76 
-16.8332 35.8769 0.805 79 79 76 
-15.9456 35.8738 0.814 79 79 76 
-15.9425 35.8845 0.8075 79 79 76 
-20.8929 35.912 0.807154 179 116 81 
-19.8193 35.8981 0.810571 79 79 76 
-19.8028 35.8992 0.819 79 79 76 
-19.773 35.8965 0.824 79 79 76 
-17.6979 35.9103 0.807286 79 79 76 
-16.8293 35.917 0.818 79 79 76 
-16.814 35.91 0.795 79 79 76 
-15.9476 35.9086 0.821 79 79 76 
-15.943 35.9058 0.812167 79 79 76 
-20.8931 35.94 0.8115 179 116 81 
-17.6976 35.9349 0.81 79 79 76 
-16.8223 35.9341 0.814625 79 79 76 
-16.8086 35.9422 0.799 79 79 76 
-15.9515 35.9455 0.822 79 79 76 
-15.94 35.946 0.811 79 79 76 
-15.376 35.93 0.8 179 116 81 
-15.3729 35.9391 0.809444 179 116 81 
-20.8939 35.9658 0.807769 179 116 81 
-17.6971 35.9675 0.807417 79 79 76 
-16.818 35.955 0.817 79 79 76 
-16.8068 35.9729 0.808417 79 79 76 
-15.9543 35.971 0.821 79 79 76 
-15.94 35.97 0.81275 79 79 76 
-15.3706 35.969 0.8098 179 116 81 
-20.895 36.0051 0.80725 179 116 81 
-20.894 35.993 0.815667 179 116 81 
-17.6968 36.0012 0.807889 79 79 76 
-16.8026 35.9984 0.815923 79 79 76 
-15.9534 36.0014 0.818571 79 79 76 
-15.939 35.998 0.814 79 79 76 
-15.3684 36.0041 0.813909 179 116 81 
-20.895 36.0317 0.807333 179 116 81 
-17.6966 36.0254 0.814143 79 79 76 
-16.7883 36.0257 0.810667 79 79 76 
-16.78 36.0393 0.813429 79 79 76 
-15.9682 36.0238 0.8222 79 79 76 
-15.3674 36.0256 0.808917 179 116 81 
-20.8959 36.0594 0.806875 179 116 81 
-19.7927 36.0677 0.824 79 79 76 
-17.6959 36.0659 0.8064 79 79 76 
-16.7659 36.0644 0.810875 79 79 76 
-15.3652 36.0637 0.8101 179 116 81 
-20.8963 36.0875 0.8065 179 116 81 
-19.7925 36.0975 0.8235 79 79 76 
-17.6957 36.0857 0.8115 79 79 76 
-16.7595 36.0798 0.80375 79 79 76 
-16.7476 36.0958 0.8152 79 79 76 
-15.3638 36.0914 0.808273 179 116 81 
-20.8968 36.1188 0.8045 179 116 81 
-19.794 36.11 0.822333 79 79 76 
-19.7765 36.1211 0.8236 79 79 76 
-17.695 36.1263 0.8066 79 79 76 
-16.7381 36.1166 0.810077 79 79 76 
-15.3624 36.1206 0.806 179 116 81 
-20.896 36.1489 0.8102 179 116 81 
-19.7934 36.1484 0.821286 79 79 76 
-19.7747 36.1513 0.8228 79 79 76 
-17.695 36.146 0.813833 79 79 76 
-16.725 36.144 0.804 41 49 101 
-16.7167 36.1546 0.8102 41 49 101 
-15.3607 36.1457 0.808833 179 116 81 
-20.896 36.1811 0.810786 179 116 81 
-19.792 36.1822 0.82 79 79 76 
-19.7701 36.1798 0.82225 79 79 76 
-19.7413 36.1882 0.824 79 79 76 
-17.6942 36.178 0.809462 79 79 76 
-16.7022 36.1718 0.810556 41 49 101 
-16.6884 36.1831 0.80925 41 49 101 
-15.359 36.18 0.812 179 116 81 
-20.895 36.2095 0.807333 179 116 81 
-19.792 36.2122 0.818833 79 79 76 
-19.7746 36.2122 0.8204 79 79 76 
-19.7379 36.2082 0.823182 79 79 76 
-19.716 36.222 0.824 79 79 76 
-17.694 36.2108 0.809308 79 79 76 
-16.7282 36.2222 0.8072 41 49 101 
-16.7077 36.2087 0.808583 41 49 101 
-16.6917 36.2003 0.80925 41 49 101 
-15.3579 36.2139 0.8045 179 116 81 
-20.895 36.2383 0.813083 179 116 81 
-20.894 36.254 0.802 179 116 81 
-19.7917 36.2415 0.81825 79 79 76 
-19.7706 36.2404 0.8198 79 79 76 
-19.7399 36.2423 0.821778 79 79 76 
-19.7095 36.2421 0.823875 79 79 76 
-19.69 36.254 0.824 79 79 76 
-17.6934 36.2418 0.8102 79 79 76 
-16.756 36.25 0.817 41 49 101 
-16.7379 36.2313 0.809636 41 49 101 
-15.3571 36.2367 0.814111 179 116 81 
-20.895 36.2684 0.8141 179 116 81 
-20.894 36.264 0.7985 179 116 81 
-19.7924 36.264 0.817 79 79 76 
-19.7717 36.2739 0.818167 79 79 76 
-19.7433 36.2714 0.820182 79 79 76 
-19.7151 36.271 0.822 79 79 76 
-19.6798 36.275 0.824 79 79 76 
-17.6923 36.2703 0.8075 79 79 76 
-16.7924 36.2813 0.813143 41 49 101 
-16.7768 36.266 0.809 41 49 101 
-15.3564 36.2696 0.809833 179 116 81 
-20.895 36.2976 0.81125 179 116 81 
-20.894 36.298 0.798 179 116 81 
-19.791 36.298 0.816 79 79 76 
-19.7708 36.3033 0.8172 79 79 76 
-19.7371 36.2946 0.819667 79 79 76 
-19.7053 36.2964 0.821625 79 79 76 
-19.6771 36.3022 0.823222 79 79 76 
-19.659 36.309 0.824 79 79 76 
-17.691 36.288 0.798 79 79 76 
-16.8212 36.3087 0.8105 41 49 101 
-16.804 36.2904 0.808714 41 49 101 
-15.4495 36.315 0.8055 41 49 101 
-15.3546 36.2989 0.81025 179 116 81 
-20.895 36.331 0.8144 179 116 81 
-20.894 36.335 0.801 179 116 81 
-19.7942 36.3307 0.815 79 79 76 
-19.7718 36.336 0.8174 79 79 76 
-19.7416 36.3288 0.818 79 79 76 
-19.717 36.3322 0.8195 79 79 76 
-19.6788 36.3285 0.822167 79 79 76 
-19.653 36.3356 0.8234 79 79 76 
-17.6922 36.3267 0.806167 79 79 76 
-16.851 36.3343 0.80425 41 49 101 
-16.833 36.3211 0.8136 41 49 101 
-15.5083 36.3403 0.809429 41 49 101 
-15.4769 36.3259 0.803857 41 49 101 
-15.446 36.3173 0.808286 41 49 101 
-15.432 36.319 0.801 41 49 101 
-15.3537 36.3309 0.807429 179 116 81 
-20.895 36.361 0.8128 179 116 81 
-20.894 36.3653 0.798667 179 116 81 
-20.4868 36.372 0.8098 41 49 101 
-20.4612 36.3573 0.8135 41 49 101 
-20.43 36.3634 0.809444 41 49 101 
-20.4103 36.3709 0.809 41 49 101 
-19.7945 36.3617 0.814833 79 79 76 
-19.769 36.3642 0.819 79 79 76 
-19.7338 36.3586 0.8208 79 79 76 
-19.7123 36.3627 0.821286 79 79 76 
-19.6815 36.3583 0.822308 79 79 76 
-19.6518 36.3567 0.8235 79 79 76 
-17.6917 36.3639 0.807333 79 79 76 
-16.8802 36.3628 0.8026 41 49 101 
-16.8624 36.3514 0.814125 41 49 101 
-15.593 36.373 0.796 41 49 101 
-15.5659 36.3642 0.81025 41 49 101 
-15.5403 36.3533 0.808 41 49 101 
-15.5208 36.3455 0.81025 41 49 101 
-15.375 36.347 0.803 179 116 81 
-15.3569 36.3597 0.809667 179 116 81 
-20.895 36.3938 0.814833 179 116 81 
-20.894 36.393 0.799222 179 116 81 
-20.5115 36.3905 0.8103 41 49 101 
-20.4958 36.3796 0.8134 41 49 101 
-20.3914 36.3792 0.8156 41 49 101 
-20.3759 36.3836 0.806909 41 49 101 
-20.3371 36.3986 0.8085 41 49 101 
-20.323 36.402 0.795 41 49 101 
-19.793 36.395 0.81475 79 79 76 
-19.7734 36.3904 0.818286 79 79 76 
-19.7442 36.3933 0.822833 79 79 76 
-19.7 36.3835 0.824 79 79 76 
-19.682 36.382 0.824 79 79 76 
-17.691 36.3886 0.811375 79 79 76 
-16.911 36.3973 0.806 41 49 101 
-16.8953 36.3842 0.8124 41 49 101 
-15.6539 36.4 0.806714 41 49 101 
-15.6298 36.3906 0.809444 41 49 101 
-15.6035 36.3799 0.81 41 49 101 
-15.35 36.3857 0.810546 179 116 81 
-20.895 36.4172 0.8136 179 116 81 
-20.894 36.4217 0.8 179 116 81 
-20.549 36.4241 0.807 41 49 101 
-20.5325 36.41 0.8205 41 49 101 
-20.3073 36.4106 0.811429 41 49 101 
-20.278 36.4241 0.814 41 49 101 
-20.253 36.4315 0.8075 41 49 101 
-19.7958 36.423 0.814167 79 79 76 
-19.7706 36.4243 0.818286 79 79 76 
-19.7465 36.423 0.822 79 79 76 
-17.6904 36.4156 0.8096 79 79 76 
-16.9363 36.4323 0.8 41 49 101 
-16.923 36.4162 0.8125 41 49 101 
-15.737 36.433 0.8 41 49 101 
-15.7173 36.4267 0.8073 41 49 101 
-15.6895 36.4144 0.804625 41 49 101 
-15.6725 36.406 0.795 41 49 101 
-15.3492 36.4118 0.809 179 116 81 
-20.895 36.458 0.809 81 163 148 
-20.5708 36.4555 0.8145 41 49 101 
-20.56 36.441 0.817 41 49 101 
-20.2432 36.4415 0.816833 41 49 101 
-20.2177 36.449 0.80905 41 49 101 
-20.189 36.4544 0.797667 41 49 101 
-20.17 36.462 0.796 41 49 101 
-19.7956 36.4466 0.8142 79 79 76 
-19.7732 36.4415 0.817941 79 79 76 
-19.7415 36.4405 0.823 79 79 76 
-17.6894 36.4507 0.812 79 79 76 
-16.9422 36.4516 0.810455 41 49 101 
-16.9328 36.439 0.8184 41 49 101 
-15.803 36.4627 0.805 41 49 101 
-15.7753 36.4538 0.8095 41 49 101 
-15.7508 36.4424 0.809778 41 49 101 
-20.895 36.4782 0.8136 81 163 148 
-20.8917 36.4821 0.806429 81 163 148 
-20.8542 36.4863 0.812818 81 163 148 
-20.8214 36.4844 0.80825 81 163 148 
-20.786 36.4823 0.803 81 163 148 
-20.7607 36.4806 0.811143 81 163 148 
-20.7292 36.4788 0.812222 81 163 148 
-20.6981 36.4769 0.807182 81 163 148 
-20.6671 36.475 0.808375 81 163 148 
-20.6358 36.4731 0.809 81 163 148 
-20.6087 36.4715 0.8105 41 49 101 
-20.5882 36.4702 0.8056 41 49 101 
-20.205 36.465 0.822 41 49 101 
-20.1846 36.4706 0.8164 41 49 101 
-20.1555 36.4785 0.807867 41 49 101 
-20.1285 36.489 0.80375 41 49 101 
-20.1085 36.4935 0.796 41 49 101 
-19.795 36.4758 0.81425 79 79 76 
-17.6887 36.4808 0.809917 79 79 76 
-16.9592 36.4808 0.805 41 49 101 
-15.8345 36.4813 0.8062 41 49 101 
-15.8126 36.4729 0.812 41 49 101 
-20.1345 36.501 0.823 41 49 101 
-20.0995 36.5112 0.813 41 49 101 
-20.0754 36.5167 0.804 41 49 101 
-17.688 36.5118 0.805 79 79 76 
-16.9767 36.5119 0.801571 41 49 101 
-15.8378 36.5077 0.8085 41 49 101 
-20.0661 36.5366 0.809524 41 49 101 
